ply
format ascii 1.0
element vertex 1723
property float x
property float y
property float z
end_header
0.065528 -0.007057 0.620000
0.049751 0.057161 0.651000
0.038867 -0.027491 0.583000
0.021654 -0.025420 0.579000
0.012408 -0.021953 0.587000
0.047724 -0.034361 0.587000
0.077415 0.065073 0.690000
0.019463 -0.016683 0.570000
0.045737 -0.039067 0.586000
-0.023834 0.076042 0.698000
0.046127 0.031712 0.591000
0.042659 -0.026543 0.583000
0.082426 0.077003 0.667000
0.046205 -0.004813 0.592000
-0.010696 0.034033 0.598000
-0.014878 -0.048602 0.610000
0.042276 0.077154 0.650000
-0.013590 -0.004854 0.597000
-0.024195 -0.008065 0.620000
0.002805 0.011220 0.575000
0.007610 -0.075146 0.585000
0.030595 -0.014341 0.588000
-0.028229 -0.027184 0.643000
0.035776 -0.040483 0.579000
0.003766 -0.063078 0.579000
-0.006400 0.067200 0.656000
0.102254 0.075059 0.669000
0.014488 0.055054 0.594000
0.018374 0.038585 0.565000
0.000000 0.032951 0.579000
0.067343 0.071688 0.668000
0.021541 -0.047766 0.576000
0.057945 -0.009821 0.604000
0.012218 -0.034774 0.578000
0.028631 0.028631 0.568000
0.098985 0.068956 0.684000
-0.020000 -0.032000 0.615000
0.039337 -0.047766 0.576000
-0.022286 -0.046598 0.623000
-0.013590 0.000000 0.597000
0.026260 0.078780 0.646000
0.008371 0.004650 0.572000
0.019873 -0.073815 0.582000
0.069863 0.056341 0.693000
0.046205 0.029841 0.592000
0.034712 0.046283 0.593000
0.095789 0.069057 0.685000
0.030961 -0.039405 0.577000
0.118400 0.078933 0.656000
0.022127 0.039644 0.567000
-0.000940 0.013158 0.578000
0.004026 0.060390 0.619000
0.045319 -0.009642 0.593000
0.009415 -0.039541 0.579000
0.055517 0.000974 0.599000
0.073187 -0.019865 0.643000
0.048595 -0.044784 0.586000
0.085764 0.070171 0.685000
0.007285 0.069724 0.640000
0.039815 -0.071098 0.583000
0.045813 -0.054228 0.575000
-0.012725 -0.020556 0.602000
-0.015740 -0.072797 0.605000
-0.006772 -0.074496 0.595000
0.064104 -0.007011 0.616000
0.035528 -0.059837 0.575000
-0.003785 0.024605 0.582000
0.038600 0.018829 0.579000
0.024013 0.006465 0.568000
0.063989 0.069411 0.667000
0.085937 0.075059 0.669000
0.004650 0.022322 0.572000
0.014673 0.033932 0.564000
0.045447 0.064472 0.650000
0.027707 0.028631 0.568000
0.044130 0.035496 0.590000
0.002805 0.013089 0.575000
0.029660 0.065457 0.629000
-0.024000 0.018000 0.615000
0.047327 -0.008693 0.594000
0.016507 0.025678 0.564000
-0.019935 -0.022925 0.613000
-0.001899 -0.064572 0.584000
-0.006670 0.003811 0.586000
0.010553 -0.079626 0.590000
0.074120 -0.041067 0.616000
0.041927 -0.054971 0.573000
-0.024273 0.004046 0.622000
0.007415 0.040780 0.570000
0.037421 0.055626 0.622000
0.053385 0.028670 0.608000
0.007662 -0.017239 0.589000
-0.007766 -0.022327 0.597000
-0.017737 -0.011824 0.606000
0.098841 0.069966 0.683000
-0.014610 -0.063309 0.599000
0.022088 0.014725 0.566000
0.016005 -0.043307 0.579000
0.004650 0.026972 0.572000
0.010356 -0.032951 0.579000
-0.008751 -0.021392 0.598000
0.052854 -0.030751 0.591000
0.021541 -0.051512 0.576000
0.100228 0.075171 0.670000
0.015950 -0.035652 0.577000
0.057863 0.079294 0.659000
0.015618 0.015618 0.565000
0.063520 -0.062543 0.601000
-0.002907 0.046517 0.596000
-0.019837 0.017854 0.610000
0.000000 -0.040972 0.586000
0.012028 0.043485 0.569000
0.061156 -0.061156 0.597000
0.032231 -0.026543 0.583000
0.016566 0.009203 0.566000
-0.001912 -0.006693 0.588000
0.049463 -0.064683 0.585000
0.092447 0.070171 0.685000
0.034834 0.034834 0.579000
0.028195 -0.046052 0.578000
-0.006738 -0.041392 0.592000
0.034127 -0.072046 0.583000
0.049633 -0.041997 0.587000
0.052995 -0.052049 0.582000
-0.005756 -0.060439 0.590000
0.049010 0.002883 0.591000
0.014024 -0.063577 0.575000
-0.008649 -0.033634 0.591000
0.015618 0.011943 0.565000
0.021008 0.078780 0.646000
-0.000963 0.046205 0.592000
0.041711 -0.036971 0.583000
-0.000950 -0.072169 0.584000
-0.003857 -0.011571 0.593000
-0.005746 -0.031605 0.589000
0.042354 -0.011551 0.592000
-0.015389 0.079141 0.676000
0.013203 -0.057528 0.580000
0.032553 0.014881 0.572000
0.018135 0.052496 0.587000
0.003863 -0.024146 0.594000
0.007454 -0.005590 0.573000
0.053301 -0.022289 0.596000
0.016507 0.004585 0.564000
0.008298 0.036878 0.567000
-0.019772 -0.014829 0.608000
0.052346 0.070507 0.657000
0.043980 0.033463 0.588000
0.003727 0.025156 0.573000
0.011063 0.014751 0.567000
0.074662 -0.033751 0.629000
0.078389 0.071764 0.679000
0.025595 0.049294 0.583000
0.039610 0.021691 0.580000
0.042068 -0.021990 0.588000
0.073834 0.063766 0.688000
0.029034 -0.037463 0.576000
0.055054 -0.036702 0.594000
0.057951 0.077268 0.660000
0.036907 -0.028390 0.582000
0.055054 -0.030907 0.594000
0.030854 0.035528 0.575000
-0.017766 0.018753 0.607000
0.038800 0.033122 0.582000
0.023496 -0.018797 0.578000
-0.008693 -0.040566 0.594000
-0.003805 -0.066585 0.585000
-0.015896 -0.043714 0.611000
0.048455 -0.013567 0.596000
-0.016668 0.009805 0.603000
-0.027015 -0.036366 0.639000
0.039405 -0.064737 0.577000
0.022712 -0.072868 0.582000
0.074361 -0.051249 0.618000
0.024393 -0.033776 0.577000
0.119649 0.077985 0.657000
-0.004732 0.015141 0.582000
0.056259 -0.074024 0.607000
0.050732 0.032195 0.600000
-0.019837 -0.017854 0.610000
0.041711 0.013272 0.583000
0.019122 0.052585 0.588000
0.083415 0.073537 0.675000
0.045893 -0.050576 0.576000
0.003727 0.027020 0.573000
0.029763 0.033483 0.572000
0.034185 0.041782 0.584000
0.011083 0.018472 0.568000
-0.023961 -0.052914 0.614000
0.037034 -0.073119 0.584000
0.027854 0.004642 0.571000
0.023455 0.046911 0.577000
0.047854 0.069122 0.654000
-0.000948 0.038867 0.583000
0.055795 -0.015662 0.602000
0.001893 -0.055834 0.582000
-0.026507 0.002039 0.627000
0.017919 -0.058472 0.580000
0.049010 0.001922 0.591000
0.019259 0.022927 0.564000
0.039200 -0.005737 0.588000
-0.008678 0.031820 0.593000
0.062810 0.069307 0.666000
0.020748 0.072618 0.638000
0.004234 0.075156 0.651000
-0.011785 -0.046159 0.604000
0.060878 0.028410 0.624000
0.054127 -0.048429 0.584000
0.013089 -0.065447 0.575000
0.044631 -0.068371 0.584000
0.051104 0.006750 0.593000
-0.006795 -0.075717 0.597000
0.027255 -0.064849 0.578000
0.048927 0.005756 0.590000
0.010499 -0.077312 0.587000
0.011376 -0.052138 0.583000
0.057434 0.015844 0.609000
0.074810 -0.030132 0.639000
0.040429 -0.018289 0.592000
0.035652 0.012197 0.577000
-0.013681 -0.023454 0.601000
0.011985 0.018439 0.567000
0.045089 0.030699 0.590000
0.089166 0.072654 0.677000
0.011278 -0.039473 0.578000
0.105967 0.075691 0.665000
0.002829 -0.058472 0.580000
0.002859 -0.045737 0.586000
0.018732 0.073886 0.640000
0.022244 -0.013902 0.570000
-0.015714 0.030446 0.604000
0.009366 -0.067434 0.576000
0.041639 -0.033122 0.582000
-0.014585 0.000000 0.598000
0.094922 0.075283 0.671000
0.036023 -0.026543 0.583000
0.011044 0.027610 0.566000
-0.024312 -0.001013 0.623000
0.055146 -0.033862 0.595000
0.025028 0.052943 0.592000
0.011356 -0.054888 0.582000
0.025376 -0.032894 0.578000
0.026693 0.058328 0.608000
0.047854 0.074439 0.654000
0.024098 0.041707 0.570000
-0.025285 0.005057 0.622000
0.041639 0.009463 0.582000
-0.007779 -0.049590 0.598000
-0.005737 -0.035376 0.588000
0.016302 -0.000906 0.557000
-0.013590 0.017473 0.597000
0.027659 0.066585 0.630000
0.065332 0.054259 0.681000
0.013249 -0.073815 0.582000
-0.001919 -0.027821 0.590000
0.059203 0.046286 0.662000
0.017083 0.063307 0.618000
0.021167 0.013805 0.566000
0.039678 0.024563 0.581000
0.061698 0.002985 0.612000
0.030023 -0.040343 0.577000
0.057849 -0.068634 0.603000
-0.023727 -0.066237 0.608000
0.001889 -0.061407 0.581000
0.084146 0.067317 0.690000
0.020676 -0.026315 0.578000
0.016033 -0.021691 0.580000
0.000000 -0.002859 0.586000
0.034717 0.077850 0.647000
0.060098 0.057912 0.672000
0.045815 0.014317 0.587000
-0.014610 0.015584 0.599000
-0.012556 0.003863 0.594000
0.035776 -0.033893 0.579000
-0.026507 -0.005098 0.627000
0.007675 -0.024943 0.590000
0.023008 0.012885 0.566000
0.021928 0.061798 0.613000
-0.016613 -0.062543 0.601000
0.053301 -0.000969 0.596000
0.016780 0.077610 0.645000
0.104098 0.078341 0.660000
0.067226 0.011554 0.646000
-0.010571 0.001922 0.591000
0.112455 0.073528 0.665000
0.000953 -0.044784 0.586000
0.039678 -0.032120 0.581000
-0.000953 -0.000953 0.586000
0.019805 -0.056585 0.580000
-0.018598 -0.057753 0.602000
0.067242 0.074834 0.667000
-0.021642 -0.063943 0.605000
-0.031659 -0.024272 0.649000
0.024563 -0.018894 0.581000
0.028631 0.027707 0.568000
-0.014732 -0.021607 0.604000
0.067115 -0.044415 0.607000
-0.028683 -0.005122 0.630000
0.041711 -0.036023 0.583000
0.017455 0.016537 0.565000
0.026270 -0.046911 0.577000
0.032673 -0.015376 0.591000
0.030491 -0.012387 0.586000
0.005629 -0.066613 0.577000
0.007428 0.011141 0.571000
-0.011688 -0.023376 0.599000
-0.004189 0.062829 0.644000
-0.004764 -0.063841 0.586000
-0.005317 0.068059 0.654000
0.026737 0.028580 0.567000
0.059883 -0.045395 0.594000
0.039800 -0.079600 0.597000
0.094725 0.078579 0.662000
0.008620 -0.024901 0.589000
0.014933 0.046667 0.574000
0.020868 -0.002722 0.558000
-0.002839 0.027444 0.582000
0.072702 -0.036351 0.621000
0.021041 0.079954 0.647000
0.047724 -0.041042 0.587000
0.028049 -0.055163 0.575000
0.028488 -0.074068 0.584000
0.028984 -0.052358 0.575000
0.009382 0.046911 0.577000
0.043831 0.021915 0.586000
0.027184 0.075278 0.643000
0.042732 -0.041782 0.584000
-0.018784 -0.002966 0.608000
0.033600 0.013067 0.574000
0.052138 -0.057826 0.583000
-0.002873 -0.028732 0.589000
0.059024 -0.004919 0.605000
0.089236 0.069158 0.686000
0.100618 0.070764 0.680000
-0.006715 0.033577 0.590000
-0.005252 0.061974 0.646000
0.044554 -0.027491 0.583000
0.046911 -0.057231 0.577000
0.072385 -0.032624 0.627000
-0.027615 -0.010228 0.629000
0.031623 0.030693 0.572000
-0.021068 -0.027088 0.617000
0.108337 0.072224 0.673000
-0.017707 0.030496 0.605000
-0.006670 0.002859 0.586000
-0.007766 0.039800 0.597000
-0.016668 -0.066673 0.603000
0.046371 -0.046371 0.582000
0.034185 -0.004748 0.584000
0.019711 0.072618 0.638000
0.059611 -0.025408 0.601000
0.062795 -0.009967 0.613000
0.050901 0.027408 0.602000
0.009236 0.021242 0.568000
0.049507 0.022327 0.597000
0.055545 -0.078358 0.610000
0.017663 0.072732 0.639000
0.000937 0.017795 0.576000
0.063688 -0.069659 0.612000
0.041392 -0.012514 0.592000
-0.006761 -0.057951 0.594000
0.048044 -0.079420 0.603000
0.030639 0.023211 0.571000
0.028984 -0.055163 0.575000
0.030803 0.049093 0.592000
-0.006715 -0.029740 0.590000
0.012862 0.031236 0.565000
-0.005727 -0.068722 0.587000
0.030693 0.031623 0.572000
0.005707 -0.047561 0.585000
-0.016613 -0.057657 0.601000
0.010499 0.051541 0.587000
0.012387 -0.024774 0.586000
-0.024546 -0.025569 0.629000
-0.004772 0.035315 0.587000
0.055702 0.004886 0.601000
0.013203 -0.043382 0.580000
0.011024 0.000919 0.565000
0.029034 -0.005620 0.576000
0.016507 0.028429 0.564000
0.101317 0.075171 0.670000
0.033600 0.027067 0.574000
-0.029411 -0.028361 0.646000
0.028732 0.011122 0.570000
-0.015818 -0.040533 0.608000
-0.017707 -0.004919 0.605000
0.083171 0.070972 0.682000
0.052138 -0.075748 0.605000
0.026784 0.019395 0.568000
-0.012598 -0.062992 0.596000
0.034829 -0.079333 0.595000
0.001896 -0.035075 0.583000
0.066927 0.059119 0.686000
-0.013659 0.025366 0.600000
0.024761 -0.000917 0.564000
0.000000 -0.054127 0.584000
0.100322 0.071659 0.678000
0.035776 -0.031068 0.579000
0.039746 -0.036907 0.582000
0.077234 0.079410 0.669000
0.012366 -0.076098 0.585000
-0.010714 -0.042855 0.599000
0.045580 -0.032286 0.584000
-0.009642 -0.029891 0.593000
0.045395 -0.013522 0.594000
0.058215 0.066839 0.663000
0.005580 0.019532 0.572000
-0.023486 -0.031655 0.628000
0.049811 -0.053571 0.578000
0.026179 -0.052358 0.575000
-0.001902 -0.058976 0.585000
0.090288 0.075059 0.669000
-0.003190 0.070185 0.654000
-0.007753 -0.057177 0.596000
0.077036 -0.014774 0.649000
-0.000951 0.000000 0.585000
0.045089 0.035496 0.590000
-0.003824 -0.004780 0.588000
-0.030367 -0.016754 0.644000
0.029085 -0.033776 0.577000
-0.000956 -0.028683 0.588000
-0.004780 -0.030595 0.588000
0.066751 -0.017193 0.622000
0.036654 0.011278 0.578000
-0.020898 0.021893 0.612000
0.041252 -0.074829 0.590000
0.041392 -0.014439 0.592000
0.050846 -0.038374 0.590000
-0.010696 -0.058341 0.598000
0.097171 0.077737 0.664000
0.019327 0.009203 0.566000
-0.019837 0.022813 0.610000
0.009415 0.048015 0.579000
0.017857 -0.031954 0.578000
0.013707 -0.009138 0.562000
0.079844 0.070972 0.682000
0.054649 0.071793 0.659000
-0.003857 -0.076174 0.593000
-0.022963 0.018969 0.614000
0.000985 0.054195 0.606000
0.081341 0.077003 0.667000
0.060746 -0.052068 0.593000
0.031498 -0.023862 0.587000
0.052854 -0.037478 0.591000
0.022088 -0.011044 0.566000
-0.027239 0.079447 0.698000
-0.016585 0.077398 0.680000
0.010177 0.005551 0.569000
0.031623 0.025112 0.572000
0.031659 -0.015350 0.590000
0.013756 0.034849 0.564000
-0.021000 -0.001000 0.615000
-0.013772 -0.052138 0.605000
0.061093 -0.019707 0.606000
0.008459 -0.057330 0.578000
0.000000 -0.007649 0.588000
-0.032915 -0.020174 0.653000
-0.021348 0.076403 0.691000
-0.001883 0.022595 0.579000
0.018146 0.000000 0.558000
0.015115 -0.057628 0.581000
-0.025854 -0.037229 0.636000
0.082927 0.071870 0.680000
-0.018846 -0.021821 0.610000
-0.005374 0.074161 0.661000
0.053171 0.048917 0.654000
-0.028683 0.003073 0.630000
-0.017795 -0.019772 0.608000
0.003811 0.047642 0.586000
0.015141 -0.052995 0.582000
0.001020 0.061171 0.627000
-0.006772 -0.046439 0.595000
0.025156 -0.012112 0.573000
0.030746 0.010249 0.573000
0.009410 0.072141 0.643000
0.068429 0.074946 0.668000
0.011415 -0.076098 0.585000
0.011063 0.013829 0.567000
0.054816 -0.014683 0.602000
-0.018753 -0.010857 0.607000
0.076166 -0.032937 0.633000
-0.001912 -0.043024 0.588000
-0.005776 -0.007701 0.592000
0.040771 -0.079600 0.597000
0.092187 0.075919 0.667000
0.064176 -0.057369 0.598000
0.030854 -0.055163 0.575000
0.083024 0.067317 0.690000
-0.008590 0.015272 0.587000
0.012007 0.007389 0.568000
0.008312 0.025860 0.568000
0.009480 -0.073941 0.583000
-0.004854 -0.021356 0.597000
0.022010 0.025678 0.564000
-0.020590 -0.058829 0.603000
0.045395 -0.012556 0.594000
-0.009790 0.077234 0.669000
0.016060 0.050070 0.581000
-0.006693 0.025815 0.588000
-0.007779 -0.050563 0.598000
0.031498 -0.012408 0.587000
0.058520 -0.055642 0.590000
0.001906 -0.050501 0.586000
0.002834 -0.062351 0.581000
0.033520 -0.022985 0.589000
-0.006761 0.038634 0.594000
-0.019805 0.016834 0.609000
0.046689 -0.033350 0.586000
0.020211 0.011943 0.565000
0.020104 0.002741 0.562000
0.037593 -0.066728 0.578000
0.066784 -0.052052 0.604000
0.020906 0.000000 0.559000
-0.019740 0.028623 0.607000
0.031463 0.075512 0.645000
0.036455 0.043171 0.590000
0.069659 -0.039805 0.612000
-0.009659 0.027044 0.594000
0.002805 0.036463 0.575000
0.044860 0.020998 0.587000
0.048211 -0.020249 0.593000
0.024393 -0.035652 0.577000
0.020712 -0.057429 0.579000
0.007421 0.077392 0.652000
-0.018598 -0.061668 0.602000
0.051276 0.013545 0.595000
0.025662 0.058233 0.607000
0.044354 -0.012535 0.593000
-0.006361 0.063610 0.652000
0.002849 -0.040833 0.584000
0.040634 -0.078366 0.595000
0.012302 -0.046371 0.582000
0.013180 -0.042366 0.579000
0.025200 0.044800 0.574000
-0.015714 0.034374 0.604000
-0.012556 0.001932 0.594000
0.038504 -0.013476 0.592000
0.115902 0.075122 0.660000
0.005639 -0.067668 0.578000
0.036138 0.064016 0.635000
-0.016641 -0.064605 0.602000
0.004659 0.012112 0.573000
0.032120 -0.004724 0.581000
0.004650 0.038133 0.572000
0.002800 0.028000 0.574000
0.034654 0.029034 0.576000
-0.028728 0.001026 0.631000
0.057309 0.057309 0.665000
0.067327 -0.031151 0.618000
0.014673 0.023844 0.564000
0.037724 -0.031122 0.580000
-0.031463 -0.012585 0.645000
0.010106 0.033073 0.565000
0.019702 -0.038467 0.577000
0.039610 -0.067902 0.580000
0.016005 -0.028244 0.579000
0.045098 0.059780 0.645000
0.013158 -0.059210 0.578000
-0.007512 0.068683 0.660000
0.012907 0.018439 0.567000
0.007467 0.000000 0.574000
0.062468 0.052605 0.674000
0.044172 -0.047932 0.578000
0.011141 -0.011141 0.571000
0.052683 -0.016585 0.600000
0.051190 0.010624 0.594000
0.024893 0.003688 0.567000
0.012345 -0.025639 0.584000
-0.003870 -0.018382 0.595000
0.021280 -0.014803 0.569000
0.011337 -0.072743 0.581000
0.020676 -0.042293 0.578000
0.004267 0.080000 0.656000
0.000000 -0.073244 0.585000
-0.013818 -0.045402 0.607000
0.105990 0.073210 0.672000
-0.008663 -0.070270 0.592000
-0.006693 -0.001912 0.588000
0.060488 -0.039024 0.600000
0.011024 0.039504 0.565000
-0.018815 0.018815 0.609000
0.071341 0.069146 0.675000
-0.030367 -0.035603 0.644000
0.052683 -0.015610 0.600000
0.020078 0.052585 0.588000
0.046530 -0.028488 0.584000
0.016088 -0.073815 0.582000
0.038733 -0.035899 0.581000
0.061919 -0.055146 0.595000
0.050816 0.023454 0.601000
-0.010714 -0.013636 0.599000
0.065211 -0.016052 0.617000
0.046291 -0.047236 0.581000
0.016033 -0.026407 0.580000
0.055795 -0.010767 0.602000
-0.011551 -0.000963 0.592000
0.044631 0.008546 0.584000
0.061156 -0.043683 0.597000
0.027114 -0.050488 0.575000
0.062023 -0.050393 0.596000
-0.020863 -0.016889 0.611000
0.001932 0.050224 0.594000
0.053906 -0.030803 0.592000
0.051893 -0.024985 0.591000
0.029711 0.019498 0.571000
0.022166 0.040637 0.568000
0.022439 -0.017764 0.575000
0.058634 -0.023454 0.601000
-0.020829 0.012894 0.610000
-0.028546 0.005098 0.627000
0.047167 -0.005776 0.592000
0.003785 -0.003785 0.582000
0.010159 -0.008312 0.568000
-0.003785 0.010410 0.582000
0.057395 0.056312 0.666000
0.006636 -0.042659 0.583000
0.125483 0.077629 0.654000
-0.002104 0.067330 0.647000
0.006476 0.035158 0.569000
0.065073 0.074834 0.667000
0.054361 0.001941 0.597000
0.076407 -0.032008 0.635000
0.014000 0.046667 0.574000
0.059650 0.050974 0.667000
0.024761 -0.003668 0.564000
0.044631 0.005698 0.584000
0.000937 0.021541 0.576000
-0.024663 -0.035967 0.632000
0.040763 0.002844 0.583000
0.046127 -0.021141 0.591000
0.016888 -0.036590 0.577000
0.033691 -0.017327 0.592000
0.015563 0.034787 0.563000
0.015011 -0.038467 0.577000
0.051717 -0.029689 0.589000
0.029236 -0.009431 0.580000
0.011537 0.074463 0.645000
0.006545 0.006545 0.575000
0.005776 -0.017327 0.592000
-0.005854 0.047805 0.600000
0.016507 0.029346 0.564000
0.021205 0.039644 0.567000
0.073512 0.065715 0.685000
0.053496 0.067405 0.658000
0.103341 0.075059 0.669000
0.001876 0.010320 0.577000
0.041854 0.031390 0.585000
0.014317 -0.078267 0.587000
0.010428 -0.053086 0.583000
0.001899 -0.039883 0.584000
0.045626 0.042650 0.610000
0.020641 -0.045972 0.577000
0.059711 -0.032302 0.602000
-0.009593 0.021106 0.590000
-0.022286 -0.032416 0.623000
0.090615 0.067122 0.688000
0.088771 0.073428 0.674000
0.024393 -0.060984 0.577000
0.017146 -0.005415 0.555000
-0.025325 -0.006078 0.623000
0.030023 -0.062860 0.577000
-0.012662 -0.026298 0.599000
0.014725 0.006442 0.566000
0.037593 0.015977 0.578000
-0.015688 -0.067654 0.603000
0.005707 -0.051366 0.585000
0.036309 0.066393 0.638000
0.013756 -0.010088 0.564000
0.001899 -0.053177 0.584000
-0.006647 0.012345 0.584000
0.061463 0.058171 0.675000
0.009415 -0.013180 0.579000
0.076917 -0.027395 0.648000
0.032553 0.013951 0.572000
-0.000938 0.017826 0.577000
0.004642 0.031567 0.571000
0.026270 -0.057231 0.577000
0.043980 -0.000956 0.588000
0.018049 -0.002707 0.555000
-0.020966 -0.002995 0.614000
0.012862 -0.010106 0.565000
-0.002859 -0.031444 0.586000
0.020712 -0.069668 0.579000
-0.003818 -0.033407 0.587000
0.029659 0.012976 0.570000
0.018829 0.048956 0.579000
0.043681 -0.037984 0.584000
-0.004837 0.043537 0.595000
0.017034 -0.073815 0.582000
0.030746 0.032610 0.573000
0.012577 0.055146 0.595000
0.074579 -0.025210 0.646000
0.027444 0.047317 0.582000
0.015977 -0.019737 0.578000
0.035556 -0.011532 0.591000
0.025860 0.031402 0.568000
0.077696 0.075507 0.673000
0.038925 0.072590 0.647000
0.089200 0.075059 0.669000
0.051959 -0.051959 0.581000
0.076332 -0.024384 0.652000
0.010231 -0.010231 0.572000
0.050966 0.056275 0.653000
-0.015688 0.024512 0.603000
0.025332 -0.057231 0.577000
0.047167 -0.004813 0.592000
0.003818 -0.075403 0.587000
0.011964 0.040494 0.566000
-0.016696 0.002946 0.604000
0.001935 -0.020317 0.595000
0.047327 -0.010624 0.594000
0.029275 0.074233 0.643000
0.085268 0.067317 0.690000
0.093507 0.079535 0.661000
0.030854 -0.056098 0.575000
0.038867 -0.071098 0.583000
-0.005776 -0.045242 0.592000
0.040693 0.014195 0.582000
0.040693 0.011356 0.582000
-0.013567 0.003876 0.596000
0.037659 0.005649 0.579000
0.012585 0.075512 0.645000
0.056878 0.074049 0.660000
0.054649 0.070722 0.659000
0.005629 -0.065675 0.577000
0.014171 0.050070 0.581000
0.001042 0.066706 0.641000
0.055146 -0.026122 0.595000
0.018567 0.057657 0.601000
-0.005737 -0.069795 0.588000
0.035776 -0.067785 0.579000
0.046361 -0.016420 0.594000
-0.015636 -0.029317 0.601000
0.061294 -0.015818 0.608000
-0.002883 0.042283 0.591000
-0.031171 -0.007273 0.639000
0.033776 -0.046911 0.577000
0.039746 -0.040693 0.582000
0.005571 0.026925 0.571000
-0.014878 -0.045626 0.610000
0.077863 0.064322 0.694000
0.018407 0.020247 0.566000
0.051102 -0.048263 0.582000
0.075187 0.069659 0.680000
0.045089 -0.021106 0.590000
0.052156 -0.023180 0.594000
0.008371 0.005580 0.572000
0.016888 -0.039405 0.577000
0.048872 -0.054511 0.578000
0.011985 0.015673 0.567000
0.038200 -0.051244 0.573000
0.006567 -0.059107 0.577000
-0.008634 -0.003837 0.590000
0.051805 -0.031659 0.590000
0.009593 -0.021106 0.590000
-0.005756 -0.037415 0.590000
0.010535 -0.022028 0.589000
0.056114 -0.037732 0.595000
-0.025772 -0.041236 0.634000
0.016917 -0.042293 0.578000
0.037659 -0.043307 0.579000
0.055805 0.071902 0.660000
0.057528 0.016862 0.610000
-0.011551 0.004813 0.592000
-0.004805 -0.047088 0.591000
-0.010696 0.035977 0.598000
0.002800 0.024267 0.574000
0.006624 -0.072868 0.582000
-0.010571 0.014415 0.591000
0.067766 -0.055980 0.604000
0.027659 0.026737 0.567000
0.024140 0.042709 0.571000
0.009220 0.027659 0.567000
-0.010624 -0.063746 0.594000
0.047642 -0.043831 0.586000
0.016917 -0.040413 0.578000
0.017298 0.053815 0.591000
0.058041 -0.012789 0.605000
0.011337 -0.043457 0.581000
0.029437 -0.025639 0.584000
0.021018 0.002741 0.562000
0.028681 0.030532 0.569000
0.093707 0.072761 0.678000
0.058537 -0.035122 0.600000
0.013272 -0.050242 0.583000
-0.006332 0.062262 0.649000
0.008371 0.006511 0.572000
0.010302 -0.060878 0.576000
0.015563 0.035702 0.563000
0.019220 0.053815 0.591000
-0.015740 -0.018691 0.605000
0.033407 -0.023862 0.587000
0.031229 -0.007571 0.582000
-0.009740 0.039933 0.599000
0.022764 -0.003642 0.560000
0.004740 -0.039815 0.583000
0.067337 -0.039610 0.609000
-0.012620 -0.061156 0.597000
0.028782 0.032496 0.571000
0.019293 0.037667 0.565000
0.061298 0.017083 0.618000
0.001886 0.006602 0.580000
-0.021171 -0.035285 0.620000
0.019224 -0.011901 0.563000
0.045028 0.058641 0.644000
0.001870 0.018699 0.575000
0.049210 -0.061512 0.582000
-0.015610 0.004878 0.600000
0.052267 0.056533 0.656000
0.038800 0.001893 0.582000
0.004740 -0.008532 0.583000
-0.004748 0.003798 0.584000
-0.004724 0.017950 0.581000
0.062283 0.062283 0.672000
0.062302 0.021102 0.618000
0.053748 -0.010750 0.601000
-0.004221 0.066483 0.649000
0.033122 0.041639 0.582000
0.001031 0.063915 0.634000
0.032618 -0.022065 0.590000
0.002800 0.020533 0.574000
-0.025325 -0.003039 0.623000
0.059000 0.022000 0.615000
-0.014683 -0.054816 0.602000
0.022049 -0.010106 0.565000
-0.009610 -0.004805 0.591000
0.015037 -0.017857 0.578000
0.072224 0.072224 0.673000
0.017525 0.070101 0.634000
0.079543 0.067220 0.689000
0.040693 0.005678 0.582000
-0.013772 -0.042301 0.605000
0.006556 0.000937 0.576000
-0.012577 0.021285 0.595000
0.005678 -0.032176 0.582000
-0.017737 -0.068976 0.606000
0.049259 -0.004829 0.594000
-0.011551 0.008663 0.592000
0.033691 -0.018289 0.592000
0.073000 -0.053000 0.615000
-0.009790 0.076146 0.669000
0.018439 0.042410 0.567000
0.009528 -0.017151 0.586000
-0.008634 0.023984 0.590000
0.001873 0.031844 0.576000
0.002883 -0.025946 0.591000
0.025724 -0.002756 0.565000
0.003727 0.030746 0.573000
0.055889 0.061263 0.661000
0.030595 -0.076488 0.588000
0.053906 -0.027915 0.592000
0.009431 -0.056585 0.580000
-0.014683 -0.012725 0.602000
0.004699 -0.067668 0.578000
0.032780 0.008429 0.576000
-0.023449 -0.028546 0.627000
0.023618 -0.023618 0.581000
-0.001912 -0.043980 0.588000
0.011024 0.033073 0.565000
0.053333 0.077867 0.656000
-0.018784 -0.004943 0.608000
0.046159 0.040267 0.604000
-0.009790 0.078322 0.669000
0.060195 0.014046 0.617000
0.013634 -0.000909 0.559000
0.016537 0.011943 0.565000
0.004829 -0.019317 0.594000
0.051793 0.033226 0.601000
0.009382 -0.068489 0.577000
0.006567 -0.060046 0.577000
0.007545 -0.036780 0.580000
0.063688 -0.018907 0.612000
0.096732 0.079535 0.661000
0.031899 0.004691 0.577000
0.026831 0.001850 0.569000
0.032839 -0.079200 0.594000
0.052496 -0.041997 0.587000
0.023971 0.034112 0.567000
0.057717 0.020898 0.612000
0.015011 -0.037528 0.577000
0.019293 0.015618 0.565000
0.007675 -0.018228 0.590000
-0.026507 -0.014273 0.627000
-0.004837 -0.077398 0.595000
-0.032966 -0.019141 0.654000
0.006499 0.021354 0.571000
0.018341 0.024761 0.564000
0.011395 -0.050328 0.584000
-0.003792 0.007584 0.583000
-0.016696 -0.010803 0.604000
0.012390 0.069179 0.635000
0.104268 0.072439 0.675000
0.024478 -0.066844 0.579000
0.033834 -0.043233 0.578000
0.055517 -0.002922 0.599000
-0.025325 -0.048624 0.623000
-0.031220 -0.040585 0.640000
-0.028728 -0.001026 0.631000
0.041951 0.065024 0.645000
0.012839 0.024761 0.564000
0.049673 0.029220 0.599000
0.018602 0.045574 0.572000
-0.003146 0.065024 0.645000
-0.015688 -0.012746 0.603000
0.032673 -0.016337 0.591000
0.060826 0.064085 0.668000
0.004707 -0.059312 0.579000
0.035776 -0.037659 0.579000
0.014073 -0.035652 0.577000
0.033691 -0.016364 0.592000
-0.026507 -0.015293 0.627000
0.040693 -0.028390 0.582000
0.057945 -0.014732 0.604000
0.078273 0.072761 0.678000
0.016859 -0.062751 0.576000
0.041711 -0.040763 0.583000
-0.004748 0.025639 0.584000
0.010285 -0.065447 0.575000
0.046673 -0.075844 0.598000
0.048537 0.026210 0.597000
0.031068 -0.067785 0.579000
-0.001935 -0.023220 0.595000
0.073000 -0.042000 0.615000
-0.022107 0.000000 0.618000
0.040693 -0.038800 0.582000
0.000000 0.045013 0.589000
0.017888 -0.059312 0.579000
0.047327 0.029941 0.594000
0.033659 -0.057967 0.575000
-0.004780 -0.031551 0.588000
0.001906 -0.047642 0.586000
0.034595 -0.021141 0.591000
-0.002902 -0.015480 0.595000
0.023008 0.011044 0.566000
0.006476 0.031457 0.569000
-0.004732 0.013249 0.582000
0.035556 -0.020180 0.591000
0.029034 -0.060878 0.576000
0.014146 -0.057528 0.580000
0.001876 0.009382 0.577000
0.001873 0.036527 0.576000
0.072117 -0.038062 0.616000
0.008620 -0.018197 0.589000
-0.003837 -0.044130 0.590000
0.031623 0.029763 0.572000
-0.021171 -0.036293 0.620000
0.005649 -0.069668 0.579000
-0.010767 -0.046985 0.602000
0.093015 0.071976 0.681000
-0.006704 0.027774 0.589000
-0.015457 0.076180 0.679000
0.000000 0.010338 0.578000
-0.003811 0.000000 0.586000
0.021130 0.033992 0.565000
-0.004886 0.048862 0.601000
0.056351 0.018784 0.608000
-0.017707 0.005902 0.605000
0.104886 0.069556 0.679000
0.010569 0.078211 0.650000
0.054016 -0.073659 0.604000
0.031567 0.015784 0.571000
0.023659 -0.072868 0.582000
0.090933 0.070972 0.682000
0.008546 -0.048429 0.584000
0.072959 -0.026057 0.641000
-0.019837 -0.006943 0.610000
0.046647 0.065730 0.652000
0.031390 0.045659 0.585000
0.036208 0.040972 0.586000
0.064130 0.055285 0.680000
0.027208 -0.043158 0.577000
0.053906 -0.026953 0.592000
-0.000940 0.020676 0.578000
0.054498 -0.061190 0.588000
0.015922 -0.017795 0.576000
0.040395 0.060075 0.637000
-0.014805 -0.051324 0.607000
0.049093 0.015402 0.592000
-0.029896 -0.009278 0.634000
0.029711 0.031567 0.571000
0.051805 -0.032618 0.590000
-0.004176 0.061590 0.642000
-0.019870 -0.004967 0.611000
0.056878 0.047220 0.660000
0.054642 0.027818 0.611000
-0.010678 -0.039800 0.597000
0.015590 -0.011005 0.564000
-0.012556 0.008693 0.594000
-0.011668 -0.071954 0.598000
0.058302 0.063701 0.664000
0.054361 -0.000971 0.597000
-0.035254 -0.017093 0.657000
-0.004756 0.002854 0.585000
-0.014311 0.074855 0.677000
0.027114 0.043008 0.575000
0.044678 0.056107 0.639000
0.004642 0.030639 0.571000
-0.021928 -0.009967 0.613000
0.022595 -0.023537 0.579000
0.001909 0.046769 0.587000
0.029135 -0.031954 0.578000
0.006590 -0.009415 0.579000
0.001899 0.044631 0.584000
0.032894 -0.034774 0.578000
0.058712 0.014927 0.612000
0.004169 0.068790 0.641000
0.006522 0.009317 0.573000
0.018992 0.051278 0.584000
0.037541 -0.017327 0.592000
0.016537 0.040423 0.565000
-0.017737 0.017737 0.606000
0.041252 -0.021106 0.590000
-0.022888 -0.053737 0.612000
0.001883 0.041424 0.579000
0.023577 -0.026407 0.580000
0.032452 -0.011454 0.587000
-0.013613 -0.007779 0.598000
0.010517 -0.078400 0.588000
0.056793 -0.041392 0.592000
-0.022963 -0.014976 0.614000
0.029971 -0.059005 0.576000
-0.005737 0.030595 0.588000
0.027680 -0.019089 0.587000
0.028732 0.021317 0.570000
-0.020283 0.073244 0.693000
0.034774 -0.045112 0.578000
0.092852 0.077737 0.664000
0.004707 -0.068727 0.579000
-0.002844 0.004740 0.583000
0.075244 -0.041133 0.617000
-0.004780 -0.034420 0.588000
0.037522 0.067748 0.641000
0.053177 -0.057925 0.584000
0.000000 0.075733 0.656000
-0.030556 -0.029502 0.648000
0.021167 0.016566 0.566000
-0.003837 -0.028780 0.590000
0.012907 0.019361 0.567000
-0.015636 0.006841 0.601000
0.012387 -0.020010 0.586000
-0.019967 -0.027954 0.614000
0.045971 0.020112 0.589000
0.047707 0.063610 0.652000
0.127493 0.079024 0.648000
0.069990 -0.021615 0.633000
0.069761 0.064224 0.681000
0.037984 -0.072169 0.584000
0.012862 0.039504 0.565000
-0.018784 -0.017795 0.608000
0.022088 0.017486 0.566000
0.125192 0.079954 0.647000
0.034654 0.028098 0.576000
0.101574 0.070660 0.679000
-0.005688 0.016115 0.583000
0.040763 0.001896 0.583000
0.002859 -0.007623 0.586000
0.031068 -0.004707 0.579000
0.016771 -0.016771 0.573000
0.020104 -0.010052 0.562000
0.043333 0.071870 0.650000
0.007766 0.054361 0.597000
0.122293 0.078693 0.654000
-0.017795 -0.035590 0.608000
0.068429 0.076033 0.668000
0.053252 0.050057 0.655000
0.023577 -0.027350 0.580000
-0.005374 0.073086 0.661000
0.044527 0.075272 0.652000
-0.006647 0.021841 0.584000
0.065106 -0.021034 0.616000
0.043756 0.016171 0.585000
0.075854 -0.037421 0.622000
0.042650 0.045626 0.610000
0.002829 -0.059415 0.580000
0.046205 -0.020215 0.592000
0.080488 -0.019317 0.660000
-0.019902 -0.000995 0.612000
0.003850 -0.025028 0.592000
0.052595 -0.008766 0.599000
-0.019902 -0.021893 0.612000
-0.005746 -0.036393 0.589000
0.122156 0.076080 0.659000
0.014182 0.064833 0.623000
0.109868 0.072883 0.669000
0.051276 -0.003870 0.595000
0.083780 0.069259 0.687000
0.049507 -0.016502 0.597000
-0.022179 -0.049398 0.620000
-0.021273 -0.042546 0.623000
0.074187 -0.034553 0.625000
-0.004772 -0.062995 0.587000
0.021579 -0.052540 0.577000
0.054543 -0.020454 0.599000
0.062561 0.053780 0.675000
0.001906 -0.045737 0.586000
0.019737 -0.045112 0.578000
-0.013590 0.013590 0.597000
0.034593 -0.057967 0.575000
0.059293 0.071151 0.663000
-0.023732 0.076846 0.695000
0.015439 0.068961 0.633000
0.040776 0.064823 0.643000
0.020211 0.035829 0.565000
0.056698 -0.061502 0.591000
0.002042 0.062289 0.628000
-0.016668 -0.004902 0.603000
0.045112 -0.047932 0.578000
0.025724 -0.000919 0.565000
0.064577 -0.032785 0.611000
0.009496 -0.048429 0.584000
0.010481 -0.026680 0.586000
-0.000958 -0.075660 0.589000
0.051629 -0.041112 0.588000
-0.027615 0.001023 0.629000
-0.008693 -0.071473 0.594000
0.064520 0.021171 0.620000
0.045013 0.023943 0.589000
0.028195 -0.064849 0.578000
-0.005688 0.020855 0.583000
0.047805 0.003824 0.588000
0.033834 -0.041353 0.578000
0.045971 0.000000 0.589000
-0.017873 0.069259 0.687000
0.060008 -0.001967 0.605000
0.006476 0.037008 0.569000
0.020498 0.045654 0.573000
0.014673 0.022927 0.564000
-0.020693 -0.066020 0.606000
0.041925 0.033350 0.586000
-0.020932 0.003987 0.613000
0.047805 0.005737 0.588000
0.002888 -0.078933 0.592000
-0.018629 -0.063732 0.603000
0.006647 -0.074068 0.584000
0.075863 -0.026341 0.648000
0.087675 0.073428 0.674000
-0.009675 -0.008707 0.595000
0.030023 -0.041281 0.577000
0.036844 -0.030231 0.581000
0.052267 0.073600 0.656000
0.029047 0.070543 0.638000
-0.016751 -0.024634 0.606000
-0.016696 -0.011785 0.604000
0.022967 0.031236 0.565000
0.020712 -0.055546 0.579000
0.041639 -0.031229 0.582000
-0.000963 -0.077971 0.592000
0.009480 -0.028439 0.583000
0.008502 -0.071798 0.581000
0.061099 0.020033 0.616000
0.079291 0.079291 0.668000
0.025906 -0.006476 0.569000
0.016613 0.057657 0.601000
0.008517 -0.054888 0.582000
0.067444 0.069620 0.669000
0.021841 -0.075018 0.584000
0.007389 0.031402 0.568000
0.030961 -0.034714 0.577000
0.032512 0.075512 0.645000
-0.027015 -0.028054 0.639000
0.009252 0.017579 0.569000
0.094813 0.069158 0.686000
0.010141 0.023049 0.567000
0.023537 0.048015 0.579000
0.074000 -0.054000 0.615000
0.004732 -0.032176 0.582000
0.018309 0.003662 0.563000
0.066751 -0.015171 0.622000
0.047327 -0.072439 0.594000
0.047154 -0.062244 0.580000
0.012862 0.011943 0.565000
0.047088 -0.001922 0.591000
0.026270 -0.033776 0.577000
-0.002863 -0.057268 0.587000
0.073971 0.079410 0.669000
0.064624 0.022215 0.621000
0.008078 0.062605 0.621000
-0.020795 0.026737 0.609000
-0.013151 0.076715 0.674000
0.021579 -0.020641 0.577000
0.024351 -0.054322 0.576000
0.058520 -0.056602 0.590000
-0.004306 0.078579 0.662000
0.018959 -0.074889 0.583000
0.049259 -0.070507 0.594000
0.016143 -0.075967 0.584000
-0.007779 0.042784 0.598000
0.076220 -0.036585 0.625000
0.061449 0.077620 0.663000
0.033834 -0.045112 0.578000
-0.002859 -0.061935 0.586000
-0.018029 -0.048078 0.616000
-0.006449 0.070937 0.661000
0.000000 0.048293 0.594000
0.058808 0.008971 0.613000
0.003870 -0.020317 0.595000
-0.007688 0.028829 0.591000
0.019634 -0.020569 0.575000
0.049673 0.025324 0.599000
0.057945 0.001964 0.604000
0.049980 0.062741 0.654000
-0.010678 -0.026210 0.597000
0.060951 -0.048374 0.595000
0.058712 0.016917 0.612000
0.033665 0.077850 0.647000
0.052995 -0.053941 0.582000
-0.019837 -0.052569 0.610000
0.019429 0.043485 0.569000
0.038333 -0.060772 0.575000
0.052683 -0.012683 0.600000
-0.008676 0.073750 0.667000
0.028146 -0.034714 0.577000
-0.010732 0.042927 0.600000
0.068307 -0.020390 0.627000
0.035652 0.025332 0.577000
0.004748 -0.043681 0.584000
0.049341 0.019350 0.595000
0.001896 -0.036023 0.583000
0.052244 -0.001935 0.595000
0.002829 -0.068846 0.580000
0.029639 -0.016254 0.588000
0.052244 -0.022252 0.595000
0.023102 -0.079896 0.592000
0.013756 0.023844 0.564000
0.020676 -0.065789 0.578000
0.058741 0.055478 0.669000
0.016946 -0.071551 0.579000
-0.011785 -0.052052 0.604000
0.029085 -0.006567 0.577000
0.047967 -0.069073 0.590000
0.118580 0.077985 0.657000
0.040623 0.018894 0.581000
0.043831 -0.024774 0.586000
-0.013795 -0.051239 0.606000
0.023524 0.067502 0.629000
0.031733 0.032667 0.574000
0.107405 0.079756 0.654000
0.050810 0.052927 0.651000
0.050224 0.014488 0.594000
0.003805 -0.051366 0.585000
0.007909 0.058328 0.608000
0.047088 -0.021141 0.591000
0.058424 -0.074268 0.609000
-0.004299 0.075236 0.661000
-0.028728 -0.008208 0.631000
0.063989 0.070496 0.667000
0.008473 -0.036717 0.579000
0.033659 -0.060772 0.575000
0.031844 -0.051512 0.576000
0.040693 0.008517 0.582000
0.017826 -0.061922 0.577000
0.045813 -0.055163 0.575000
0.062621 0.077737 0.664000
0.000000 -0.060670 0.583000
0.054034 -0.050242 0.583000
0.041639 -0.029337 0.582000
-0.002863 -0.030543 0.587000
-0.012641 -0.068065 0.598000
0.038439 -0.011532 0.591000
-0.004846 -0.017444 0.596000
-0.009659 -0.070507 0.594000
-0.015662 -0.010767 0.602000
-0.020932 -0.006977 0.613000
0.009496 -0.075018 0.584000
0.015141 -0.024605 0.582000
0.039067 -0.024774 0.586000
0.013634 -0.006363 0.559000
0.000000 0.027255 0.578000
0.046371 -0.065298 0.582000
0.034717 0.078902 0.647000
0.028244 -0.066844 0.579000
0.049093 0.000000 0.592000
-0.010553 0.006715 0.590000
-0.000946 0.005678 0.582000
0.059382 0.069099 0.664000
0.058927 -0.002946 0.604000
0.019771 -0.054605 0.579000
0.120013 0.077151 0.659000
0.021141 0.053815 0.591000
0.030075 -0.065789 0.578000
0.053815 -0.064385 0.591000
-0.000967 -0.023220 0.595000
0.024065 -0.079896 0.592000
0.074517 0.066732 0.684000
0.015590 0.022927 0.564000
0.033776 -0.047849 0.577000
0.053906 -0.065457 0.592000
-0.024837 -0.065571 0.611000
0.096620 0.071076 0.683000
0.000000 0.016859 0.576000
0.028631 0.026784 0.568000
0.039678 -0.031176 0.581000
0.032065 -0.002829 0.580000
0.040429 -0.014439 0.592000
0.019976 -0.076098 0.585000
-0.017707 -0.006886 0.605000
0.037161 -0.024774 0.586000
0.053569 0.012662 0.599000
-0.011571 0.000964 0.593000
0.041252 -0.006715 0.590000
0.012644 0.077971 0.648000
-0.016724 0.031480 0.605000
-0.018753 0.006909 0.607000
0.022886 -0.006408 0.563000
-0.027702 -0.012312 0.631000
0.029971 -0.058068 0.576000
0.021854 0.000000 0.560000
0.003068 0.063411 0.629000
0.069089 -0.054285 0.607000
0.022517 -0.039405 0.577000
0.017146 -0.006317 0.555000
0.020676 -0.061089 0.578000
0.006302 0.072478 0.646000
0.075488 -0.047306 0.619000
0.025376 0.046992 0.578000
0.050140 -0.000964 0.593000
0.009285 -0.008356 0.571000
0.060951 -0.047407 0.595000
0.071808 -0.034387 0.622000
-0.014610 -0.004870 0.599000
-0.019902 0.000000 0.612000
0.036527 -0.063688 0.576000
0.019958 0.078780 0.646000
0.000000 0.062785 0.633000
0.038374 -0.021106 0.590000
0.077629 -0.018078 0.654000
-0.002888 0.043317 0.592000
0.006351 0.076215 0.651000
0.008488 -0.056585 0.580000
-0.012810 -0.050254 0.606000
0.011985 0.017517 0.567000
-0.012020 0.073210 0.672000
0.051454 -0.062888 0.586000
0.015618 0.021130 0.565000
0.068141 0.060322 0.687000
0.023008 0.021167 0.566000
0.008298 0.037800 0.567000
0.014465 -0.005424 0.556000
-0.001912 -0.046849 0.588000
-0.016641 -0.055795 0.602000
0.013226 -0.044402 0.581000
-0.010660 -0.060085 0.596000
0.017424 0.004585 0.564000
-0.018876 -0.029805 0.611000
0.058039 0.072011 0.661000
-0.024797 -0.064472 0.610000
0.027208 -0.060984 0.577000
0.051190 0.001932 0.594000
0.000951 -0.001902 0.585000
0.106605 0.073971 0.669000
0.065366 -0.055610 0.600000
-0.002873 -0.045971 0.589000
-0.019805 0.013863 0.609000
0.014699 0.039504 0.565000
0.049971 0.006727 0.591000
0.043171 0.036455 0.590000
0.032724 -0.057033 0.575000
0.021341 0.066057 0.625000
0.008620 0.051717 0.589000
0.017210 -0.079356 0.588000
0.020712 -0.068727 0.579000
0.016537 0.005512 0.565000
0.076741 -0.048468 0.621000
0.001915 -0.076618 0.589000
-0.016724 -0.015740 0.605000
-0.010821 -0.078699 0.605000
-0.008693 0.034771 0.594000
-0.011727 -0.042998 0.601000
0.084512 0.073537 0.675000
0.029867 0.004667 0.574000
0.064024 0.026423 0.625000
0.045580 -0.027538 0.584000
-0.007688 -0.035556 0.591000
-0.006784 -0.012598 0.596000
0.017610 -0.015756 0.570000
0.019737 -0.043233 0.578000
0.001889 0.042512 0.581000
0.006499 0.012070 0.571000
0.039746 -0.037854 0.582000
0.036780 -0.032065 0.580000
0.032724 0.009350 0.575000
0.067242 0.077003 0.667000
0.039746 0.002839 0.582000
0.037789 0.032120 0.581000
-0.010624 -0.006761 0.594000
0.030023 -0.063798 0.577000
0.022927 0.025678 0.564000
0.053333 0.052267 0.656000
-0.024702 -0.031907 0.633000
0.056302 -0.025239 0.597000
-0.012704 0.041044 0.601000
0.104423 0.071447 0.676000
-0.001919 -0.007675 0.590000
0.016917 -0.029135 0.578000
0.013818 0.059220 0.607000
-0.009707 -0.024268 0.597000
0.009236 0.024013 0.568000
-0.009756 0.042927 0.600000
-0.006818 0.046751 0.599000
-0.022925 0.014951 0.613000
0.021616 -0.060150 0.578000
0.038925 0.075746 0.647000
0.015535 -0.010052 0.562000
0.040343 -0.046911 0.577000
-0.024195 -0.007057 0.620000
0.086140 0.068241 0.688000
-0.003818 -0.061086 0.587000
-0.014634 -0.035122 0.600000
-0.006738 -0.026953 0.592000
0.042283 0.038439 0.591000
0.100766 0.069761 0.681000
-0.015766 -0.073902 0.606000
0.000945 -0.065185 0.581000
0.008429 -0.059941 0.576000
-0.009740 0.043829 0.599000
0.016833 0.078902 0.647000
0.047805 -0.037288 0.588000
0.023928 0.031291 0.566000
0.035590 0.021541 0.576000
0.041156 0.079146 0.649000
-0.001909 -0.052496 0.587000
0.044937 0.022946 0.588000
-0.002859 -0.071463 0.586000
0.003766 -0.062137 0.579000
-0.024156 0.007046 0.619000
-0.019101 0.069662 0.691000
-0.010571 0.016337 0.591000
0.016724 0.059024 0.605000
0.022361 0.045654 0.573000
-0.013750 -0.074641 0.604000
0.016507 0.033015 0.564000
0.046769 -0.038179 0.587000
0.055925 -0.063639 0.593000
-0.012704 -0.040067 0.601000
0.024937 0.004618 0.568000
0.004984 0.058808 0.613000
0.041639 0.007571 0.582000
0.053086 -0.048346 0.583000
-0.024919 -0.053824 0.613000
0.047805 0.006693 0.588000
0.008459 -0.069548 0.578000
-0.011805 -0.049187 0.605000
0.001922 -0.077839 0.591000
-0.013613 -0.033060 0.598000
0.063820 0.024312 0.623000
0.055795 0.005873 0.602000
0.100410 0.077737 0.664000
0.017177 -0.001808 0.556000
-0.008737 -0.044654 0.597000
0.048374 -0.009675 0.595000
0.044205 -0.007688 0.591000
0.010446 -0.048429 0.584000
0.040693 -0.032176 0.582000
0.036517 -0.012493 0.591000
-0.022036 -0.051083 0.616000
-0.012598 -0.031011 0.596000
0.060951 -0.045472 0.595000
0.033659 0.023374 0.575000
0.027208 -0.060046 0.577000
0.030961 -0.000938 0.577000
0.017888 -0.052722 0.579000
0.020211 0.005512 0.565000
-0.002844 0.035075 0.583000
0.002055 0.063714 0.632000
-0.000963 -0.012514 0.592000
0.010966 -0.004569 0.562000
0.050309 -0.005805 0.595000
0.022049 0.021130 0.565000
0.036590 0.016888 0.577000
0.024520 0.048098 0.580000
-0.014610 -0.057465 0.599000
0.022790 -0.075018 0.584000
-0.008751 -0.045701 0.598000
0.009220 0.038722 0.567000
0.029815 0.034473 0.573000
0.024055 -0.010177 0.569000
0.020569 0.046748 0.575000
0.017857 -0.031015 0.578000
0.011278 -0.038533 0.578000
-0.005776 -0.043317 0.592000
0.021130 0.031236 0.565000
0.011083 0.005541 0.568000
0.043317 -0.017327 0.592000
0.041997 -0.000954 0.587000
-0.029366 -0.032512 0.645000
-0.005795 -0.056020 0.594000
-0.006807 -0.020420 0.598000
0.026498 -0.027444 0.582000
-0.015714 -0.068748 0.604000
0.041997 0.034361 0.587000
0.004740 -0.040763 0.583000
0.032610 0.017702 0.573000
0.048872 -0.051691 0.578000
0.019088 -0.009089 0.559000
-0.022107 -0.023112 0.618000
-0.017766 -0.026649 0.607000
0.052683 -0.013659 0.600000
0.095488 0.073537 0.675000
0.002893 -0.016392 0.593000
0.017486 0.008283 0.566000
0.003727 0.013976 0.573000
-0.020000 -0.033000 0.615000
-0.025041 -0.052085 0.616000
0.042933 -0.057867 0.574000
0.002844 -0.036971 0.583000
0.011859 -0.000912 0.561000
0.017857 -0.025376 0.578000
0.009252 0.013878 0.569000
-0.004797 -0.042211 0.590000
0.060306 -0.008898 0.608000
0.055889 0.052665 0.661000
0.006670 -0.049548 0.586000
0.024805 -0.005512 0.565000
0.008473 -0.037659 0.579000
0.003746 0.009366 0.576000
0.004707 -0.058371 0.579000
0.020712 -0.058371 0.579000
0.010285 -0.064512 0.575000
-0.018598 -0.062647 0.602000
0.030751 -0.020180 0.591000
0.011337 -0.055738 0.581000
-0.023262 -0.022250 0.622000
0.017857 -0.030075 0.578000
0.033600 0.014000 0.574000
0.053450 -0.042951 0.587000
-0.007727 -0.009659 0.594000
0.073000 -0.041000 0.615000
-0.024663 -0.028774 0.632000
-0.026912 -0.062795 0.613000
0.034774 -0.039473 0.578000
-0.000954 -0.050587 0.587000
0.009545 -0.025771 0.587000
-0.014659 0.042021 0.601000
0.083044 0.074302 0.672000
-0.029138 -0.018732 0.640000
0.027208 -0.035652 0.577000
0.059000 0.010000 0.615000
0.052943 -0.034654 0.592000
0.039815 0.001896 0.583000
0.034127 -0.003792 0.583000
0.021616 -0.064849 0.578000
0.040156 -0.003824 0.588000
-0.008663 -0.029841 0.592000
0.002120 0.074211 0.652000
-0.027571 -0.006127 0.628000
0.074735 0.065811 0.686000
0.054361 0.000000 0.597000
0.063098 -0.055332 0.597000
-0.029754 -0.006156 0.631000
0.043790 -0.054039 0.573000
-0.009740 -0.074997 0.599000
0.049633 -0.031498 0.587000
0.059580 -0.055737 0.591000
0.007584 -0.029387 0.583000
-0.000940 0.011278 0.578000
-0.006410 0.068371 0.657000
-0.016683 0.064507 0.684000
-0.023075 -0.019062 0.617000
0.023008 0.032211 0.566000
0.022010 0.028429 0.564000
0.011863 0.059317 0.608000
0.011102 -0.010177 0.569000
0.048917 0.078693 0.654000
0.063659 0.051585 0.675000
0.054907 0.013727 0.603000
0.037268 -0.055902 0.573000
0.035075 0.039815 0.583000
0.079294 -0.019288 0.659000
0.055054 -0.028976 0.594000
0.066322 -0.027132 0.618000
-0.017795 -0.052397 0.608000
-0.015636 0.016613 0.601000
0.005561 0.032439 0.570000
0.005580 0.013951 0.572000
0.039678 0.026452 0.581000
0.005580 0.012091 0.572000
0.015141 -0.053941 0.582000
0.042211 -0.005756 0.590000
0.056208 -0.036826 0.596000
0.012007 0.006465 0.568000
0.041567 -0.068020 0.581000
0.022868 0.051454 0.586000
0.000948 0.002844 0.583000
0.059314 -0.039867 0.598000
-0.009626 -0.006738 0.592000
0.024013 -0.009236 0.568000
0.071020 -0.027790 0.633000
0.071649 -0.054732 0.612000
-0.025873 -0.064683 0.612000
0.038733 -0.032120 0.581000
-0.002849 0.003798 0.584000
-0.009626 -0.005776 0.592000
0.027208 -0.044096 0.577000
0.033834 -0.066728 0.578000
0.025068 -0.010213 0.571000
0.008488 -0.033951 0.580000
0.010946 -0.003649 0.561000
0.064000 -0.003000 0.615000
0.014673 0.038517 0.564000
0.000966 -0.017385 0.594000
0.052332 0.009691 0.596000
0.032553 0.015811 0.572000
0.025244 -0.053293 0.575000
-0.007766 -0.046595 0.597000
0.051959 -0.054793 0.581000
0.041392 -0.016364 0.592000
0.057528 0.012894 0.610000
-0.014268 0.079024 0.675000
-0.027483 -0.047841 0.626000
0.019293 0.017455 0.565000
0.014122 -0.058371 0.579000
0.029971 -0.061815 0.576000
0.075488 -0.049319 0.619000
0.024393 -0.015950 0.577000
0.029377 0.062807 0.623000
0.048130 0.034654 0.592000
0.019185 0.064624 0.621000
0.064372 0.065463 0.671000
-0.020829 -0.011902 0.610000
0.032563 0.076680 0.646000
0.049971 0.005766 0.591000
0.088715 0.070972 0.682000
0.017424 0.032098 0.564000
-0.008751 -0.013613 0.598000
0.017424 0.031180 0.564000
-0.028683 -0.006146 0.630000
0.018179 0.000909 0.559000
0.082140 0.065262 0.692000
0.021728 -0.071798 0.581000
-0.007701 -0.037541 0.592000
0.100766 0.068654 0.681000
0.021654 -0.028244 0.579000
0.001873 0.032780 0.576000
0.004862 0.053480 0.598000
0.089613 0.076657 0.664000
0.007402 0.024980 0.569000
0.062180 -0.032571 0.607000
0.020676 -0.032894 0.578000
0.019566 -0.018634 0.573000
0.019259 0.022010 0.564000
0.055548 -0.060337 0.589000
-0.031610 -0.032663 0.648000
-0.016696 -0.028481 0.604000
-0.006795 -0.021356 0.597000
0.022517 -0.045972 0.577000
-0.018876 -0.024837 0.611000
0.031789 0.008415 0.575000
0.025376 -0.064849 0.578000
0.005629 0.005629 0.577000
0.009252 0.011102 0.569000
0.048943 -0.077330 0.602000
0.011395 -0.075018 0.584000
0.015089 -0.028293 0.580000
0.032312 0.059576 0.621000
0.023971 0.015673 0.567000
0.104429 0.075059 0.669000
0.040693 -0.069083 0.582000
-0.010571 0.013454 0.591000
-0.020932 0.004984 0.613000
-0.007766 -0.056302 0.597000
-0.026127 0.011054 0.618000
0.008298 0.035956 0.567000
0.003034 0.060683 0.622000
0.064390 -0.051707 0.600000
0.108554 0.076311 0.661000
-0.002863 -0.004772 0.587000
0.074156 0.062920 0.691000
0.009541 0.079512 0.652000
0.039132 -0.052176 0.573000
0.073990 -0.031857 0.632000
0.054016 0.019642 0.604000
-0.021893 0.012937 0.612000
0.016917 -0.031954 0.578000
0.036337 -0.052176 0.573000
0.012839 0.034849 0.564000
0.014595 0.001824 0.561000
0.061395 -0.005941 0.609000
0.022361 -0.016771 0.573000
-0.009772 -0.051793 0.601000
0.018016 -0.003603 0.554000
0.007480 0.002805 0.575000
0.025507 0.048180 0.581000
0.022927 -0.008254 0.564000
0.055076 -0.053177 0.584000
-0.013545 0.006772 0.595000
0.084215 0.078816 0.664000
0.010338 0.047932 0.578000
0.068885 -0.030390 0.623000
0.047167 0.031766 0.592000
0.052420 0.012620 0.597000
0.072398 0.064602 0.685000
0.017470 0.068852 0.632000
-0.022000 0.007000 0.615000
0.043400 0.077273 0.651000
0.041639 0.006624 0.582000
0.013585 -0.002717 0.557000
-0.017971 -0.041932 0.614000
0.014171 -0.048180 0.581000
0.048180 -0.061407 0.581000
0.042732 -0.038933 0.584000
-0.013590 0.000971 0.597000
0.045517 0.067746 0.651000
0.027208 -0.045972 0.577000
0.018293 0.066057 0.625000
-0.016668 0.013727 0.603000
-0.012704 0.042021 0.601000
0.065044 0.061737 0.678000
0.021093 0.023844 0.564000
0.060917 0.063093 0.669000
0.040833 -0.025639 0.584000
0.056964 0.072011 0.661000
0.050478 0.019415 0.597000
-0.009675 0.029992 0.595000
0.019737 -0.040413 0.578000
0.014000 0.062000 0.615000
0.040693 0.022712 0.582000
0.033834 0.004699 0.578000
-0.016668 0.007844 0.603000
0.009447 -0.032120 0.581000
0.055818 0.026912 0.613000
0.011356 -0.073815 0.582000
-0.002873 -0.046928 0.589000
0.022556 -0.057330 0.578000
